 267918.654, 4178496.403, 1206.033
 267920.033, 4178499.479, 1204.846
 267919.448, 4178502.838, 1199.192
 267920.482, 4178503.695, 1209.970
 267921.891, 4178507.765, 1208.058
 267923.862, 4178510.444, 1204.923
 267922.210, 4178515.520, 1165.538
 267922.717, 4178517.843, 1212.892
 267923.323, 4178519.720, 1213.629
 267923.554, 4178522.653, 1217.321
 267924.056, 4178525.810, 1207.630
 267922.781, 4178528.142, 1216.412
 267921.164, 4178530.440, 1219.056
 267923.362, 4178534.525, 1201.401
 267920.993, 4178537.408, 1212.318
 267920.313, 4178540.065, 1215.351
 267917.416, 4178543.096, 1209.878
 267916.993, 4178545.778, 1209.648
 267915.424, 4178547.305, 1210.516
 267914.119, 4178550.895, 1215.326
 267913.722, 4178553.262, 1220.929
 267912.097, 4178559.692, 1216.333
 267909.711, 4178561.450, 1220.022
 267909.497, 4178561.269, 1209.796
 267908.214, 4178564.907, 1211.592
 267907.247, 4178566.338, 1217.518
 267905.290, 4178569.746, 1217.723
 267903.785, 4178572.971, 1216.787
 267901.903, 4178576.069, 1216.765
 267902.724, 4178578.789, 1212.822
 267902.399, 4178581.455, 1216.015
 267900.390, 4178584.670, 1216.490
 267900.726, 4178585.339, 1220.795
 267898.790, 4178589.940, 1217.139
 267898.807, 4178593.732, 1215.935
 267896.461, 4178594.348, 1213.264
 267896.118, 4178598.263, 1213.037
 267894.383, 4178601.026, 1212.997
 267892.779, 4178604.600, 1212.477
 267892.060, 4178607.087, 1212.802
 267890.861, 4178609.562, 1213.709
 267887.515, 4178612.923, 1210.091
 267890.480, 4178615.779, 1214.352
 267887.297, 4178617.159, 1215.076
 267886.865, 4178620.431, 1214.957
 267885.798, 4178623.822, 1213.876
 267885.107, 4178625.935, 1214.382
 267884.174, 4178628.973, 1214.829
 267882.985, 4178632.623, 1213.947
 267881.991, 4178635.559, 1213.634
 267881.510, 4178638.373, 1213.877
 267881.954, 4178641.402, 1214.180
 267881.079, 4178646.255, 1216.574
 267881.337, 4178649.633, 1216.400
 267883.459, 4178650.542, 1212.664
 267883.495, 4178654.002, 1214.439
 267884.829, 4178656.726, 1214.309
 267885.459, 4178659.188, 1215.593
 267886.308, 4178662.453, 1215.925
 267886.470, 4178665.069, 1215.645
 267886.979, 4178668.235, 1215.386
 267888.298, 4178671.170, 1215.392
 267888.370, 4178674.199, 1215.305
 267888.484, 4178677.216, 1215.175
 267888.682, 4178680.098, 1215.388
 267888.564, 4178683.548, 1214.966
 267887.995, 4178686.469, 1215.140
 267887.299, 4178689.409, 1215.294
 267885.689, 4178691.826, 1215.480
 267883.510, 4178693.930, 1215.506
 267881.363, 4178696.146, 1215.599
 267879.262, 4178698.353, 1215.752
 267877.227, 4178700.448, 1215.966
 267874.985, 4178702.635, 1216.018
 267872.530, 4178704.825, 1216.055
 267872.950, 4178708.247, 1216.234
 267871.890, 4178711.160, 1216.371
 267871.051, 4178714.117, 1216.519
 267870.310, 4178717.087, 1216.584
 267869.512, 4178719.995, 1216.679
 267868.626, 4178722.921, 1216.619
 267867.634, 4178725.789, 1216.638
 267866.439, 4178728.551, 1216.621
 267864.904, 4178731.190, 1216.606
 267863.338, 4178733.790, 1216.720
 267861.793, 4178736.337, 1216.882
 267860.004, 4178738.819, 1217.004
 267858.504, 4178741.456, 1217.383
 267857.406, 4178744.681, 1216.949
 267855.409, 4178746.947, 1219.928
 267853.512, 4178749.048, 1218.791
 267851.776, 4178751.918, 1223.024
 267850.332, 4178753.033, 1218.816
 267850.049, 4178757.408, 1222.757
 267848.313, 4178759.052, 1223.602
 267847.040, 4178762.640, 1228.766
 267847.230, 4178764.083, 1224.700
 267843.818, 4178766.260, 1222.186
 267840.877, 4178767.117, 1225.177
 267837.580, 4178768.286, 1223.411
 267836.325, 4178770.882, 1224.782
 267834.771, 4178773.613, 1223.004
 267833.564, 4178776.179, 1224.202
 267832.193, 4178778.778, 1224.337
 267830.300, 4178781.945, 1224.441
 267829.386, 4178784.188, 1223.370
 267826.945, 4178786.927, 1224.422