267918.654,4178496.403,1206.464061625146
267920.033,4178499.479,1206.522706054651
267919.448,4178502.838,1206.717931436199
267920.482,4178503.695,1206.760461806899
267921.891,4178507.765,1207.243685722286
267923.862,4178510.444,1207.517731103695
267922.717,4178517.843,1208.812251110171
267923.323,4178519.72,1208.917768527509
267923.554,4178522.653,1209.139055255063
267924.056,4178525.81,1209.079775419017
267922.781,4178528.142,1209.19750795331
267921.164,4178530.44,1209.425799421636
267923.362,4178534.525,1209.270466677447
267920.993,4178537.408,1209.407006127705
267920.313,4178540.065,1209.519453083175
267917.416,4178543.096,1209.758489848216
267916.993,4178545.778,1210.030405091983
267915.424,4178547.305,1210.241528941193
267914.119,4178550.895,1210.617129753703
267913.722,4178553.262,1210.675326028483
267912.097,4178559.692,1211.483209684978
267911.461,4178564.385,1212.093673323
267909.497,4178561.269,1212.291651319322
267908.214,4178564.907,1212.621803056106
267907.247,4178566.338,1212.790259390596
267905.29,4178569.746,1213.310557831577
267903.785,4178572.971,1213.633907121839
267901.903,4178576.069,1213.662556902742
267902.724,4178578.789,1213.340811775343
267902.399,4178581.455,1213.191539676846
267900.726,4178585.339,1213.541464250714
267898.807,4178593.732,1213.433821996673
267896.461,4178594.348,1213.389881336831
267896.118,4178598.263,1212.678342261292
267894.383,4178601.026,1212.550538460697
267892.779,4178604.6,1212.718049036312
267892.06,4178607.087,1212.90220216486
267890.861,4178609.562,1213.121418562236
267887.515,4178612.923,1213.540393301573
267887.297,4178617.159,1213.784911753875
267886.865,4178620.431,1213.795611109547
267885.798,4178623.822,1213.656048343888
267885.107,4178625.935,1213.561735912539
267884.174,4178628.973,1213.447064649636
267882.985,4178632.623,1213.337726953854
267881.991,4178635.559,1213.30683746099
267881.51,4178638.373,1213.38543481739
267881.954,4178641.402,1213.600557744242
267881.079,4178646.255,1214.071809513201
267881.337,4178649.633,1214.547994583687
267883.459,4178650.542,1214.853626901629
267883.495,4178654.002,1215.046022328973
267884.829,4178656.726,1215.333398776839
267885.459,4178659.188,1215.539113713044
267886.308,4178662.453,1215.721696761945
267886.47,4178665.069,1215.731730565421
267886.979,4178668.235,1215.76816314832
267888.298,4178671.17,1215.649341047567
267888.37,4178674.199,1215.566908019378
267888.484,4178677.216,1215.490844063107
267888.682,4178680.098,1215.421552079817
267888.564,4178683.548,1215.453864637003
267887.995,4178686.469,1215.630136917699
267887.299,4178689.409,1215.803636235125
267885.689,4178691.826,1215.93426533031
267883.51,4178693.93,1216.026288030054
267881.363,4178696.146,1216.127908827458
267879.262,4178698.353,1216.217138391556
267877.227,4178700.448,1216.424786497028
267874.985,4178702.635,1216.550169294766
267872.53,4178704.825,1216.567724412155
267872.95,4178708.247,1216.730774371083
267871.89,4178711.16,1216.854069520806
267871.051,4178714.117,1216.961589489191
267870.31,4178717.087,1217.066196447525
267869.512,4178719.995,1217.057057834167
267868.626,4178722.921,1217.044787777737
267867.634,4178725.789,1217.075488462531
267866.439,4178728.551,1217.099615093164
267864.904,4178731.19,1217.066249096978
267863.338,4178733.79,1217.097279943016
267861.793,4178736.337,1217.124797840311
267860.004,4178738.819,1217.383000390482
267858.504,4178741.456,1217.636881231636
267857.406,4178744.681,1218.082098389125
267855.409,4178746.947,1218.512569374859
267853.512,4178749.048,1218.942914153229
267851.776,4178751.918,1219.452964102507
267850.332,4178753.033,1219.855560947614
267850.049,4178757.408,1221.059296138675
267848.313,4178759.052,1221.50293822364
267849.856,4178761.074,1221.735866345443
267847.23,4178764.083,1222.428104119899
267843.818,4178766.26,1223.029665054216
267840.877,4178767.117,1223.322915623666
267837.58,4178768.286,1223.275128944685
267836.325,4178770.882,1223.637589024869
267834.771,4178773.613,1223.771666574011
267833.564,4178776.179,1223.975796726555
267832.193,4178778.778,1224.000479501883
267830.3,4178781.945,1224.106985484312
267829.386,4178784.188,1224.216135436423
267826.945,4178786.927,1224.331250846693
